x, y, z, r, g, b
-23, 70, -46, 2.3, 7.0, 4.6
-23, 71, -46, 2.3, 7.1, 4.6
-23, 72, -46, 2.3, 7.2, 4.6
-23, 73, -46, 2.3, 7.3, 4.6
-23, 74, -46, 2.3, 7.4, 4.6
-23, 75, -46, 2.3, 7.5, 4.6
-23, 76, -46, 2.3, 7.6, 4.6
-23, 77, -46, 2.3, 7.7, 4.6
-23, 78, -46, 2.3, 7.8, 4.6
-23, 79, -46, 2.3, 7.9, 4.6
-23, 80, -46, 2.3, 8.0, 4.6
-23, 81, -46, 2.3, 8.1, 4.6
-23, 82, -46, 2.3, 8.2, 4.6
-23, 83, -46, 2.3, 8.3, 4.6
-23, 84, -46, 2.3, 8.4, 4.6
-23, 85, -46, 2.3, 8.5, 4.6
-23, 86, -46, 2.3, 8.6, 4.6
-23, 87, -46, 2.3, 8.7, 4.6
-23, 88, -46, 2.3, 8.8, 4.6
-23, 89, -46, 2.3, 8.9, 4.6
-23, 90, -46, 2.3, 9.0, 4.6
-23, 91, -46, 2.3, 9.1, 4.6
-23, 92, -46, 2.3, 9.2, 4.6
-23, 93, -46, 2.3, 9.3, 4.6
-23, 94, -46, 2.3, 9.4, 4.6
-23, 95, -46, 2.3, 9.5, 4.6
-23, 96, -46, 2.3, 9.6, 4.6
-23, 97, -46, 2.3, 9.7, 4.6
-23, 98, -46, 2.3, 9.8, 4.6
-23, 99, -46, 2.3, 9.9, 4.6
-23, 100, -46, 2.3, 10.0, 4.6
-22, -100, 44, 2.2, 10.0, 4.4
-22, -99, 44, 2.2, 9.9, 4.4
-22, -98, 44, 2.2, 9.8, 4.4
-22, -97, 44, 2.2, 9.7, 4.4
-22, -96, 44, 2.2, 9.6, 4.4
-22, -95, 44, 2.2, 9.5, 4.4
-22, -94, 44, 2.2, 9.4, 4.4
-22, -93, 44, 2.2, 9.3, 4.4
-22, -92, 44, 2.2, 9.2, 4.4
-22, -91, 44, 2.2, 9.1, 4.4
-22, -90, 44, 2.2, 9.0, 4.4
-22, -89, 44, 2.2, 8.9, 4.4
-22, -88, 44, 2.2, 8.8, 4.4
-22, -87, 44, 2.2, 8.7, 4.4
-22, -86, 44, 2.2, 8.6, 4.4
-22, -85, 44, 2.2, 8.5, 4.4
-22, -84, 44, 2.2, 8.4, 4.4
-22, -83, 44, 2.2, 8.3, 4.4
-22, -82, 44, 2.2, 8.2, 4.4
-22, -81, 44, 2.2, 8.1, 4.4
-22, -80, 44, 2.2, 8.0, 4.4
-22, -79, 44, 2.2, 7.9, 4.4
-22, -78, 44, 2.2, 7.8, 4.4
-22, -77, 44, 2.2, 7.7, 4.4
-22, -76, 44, 2.2, 7.6, 4.4
-22, -75, 44, 2.2, 7.5, 4.4
-22, -74, 44, 2.2, 7.4, 4.4
-22, -73, 44, 2.2, 7.3, 4.4
-22, -72, 44, 2.2, 7.2, 4.4
-22, -71, 44, 2.2, 7.1, 4.4
-22, -70, 44, 2.2, 7.0, 4.4
-22, -69, 44, 2.2, 6.9, 4.4
-22, -68, 44, 2.2, 6.8, 4.4
-22, -67, 44, 2.2, 6.7, 4.4
-22, -66, 44, 2.2, 6.6, 4.4
-22, -65, 44, 2.2, 6.5, 4.4
-22, -64, 44, 2.2, 6.4, 4.4
-22, -63, 44, 2.2, 6.3, 4.4
-22, -62, 44, 2.2, 6.2, 4.4
-22, -61, 44, 2.2, 6.1, 4.4
-22, -60, 44, 2.2, 6.0, 4.4
-22, -59, 44, 2.2, 5.9, 4.4
-22, -58, 44, 2.2, 5.8, 4.4
-22, -57, 44, 2.2, 5.7, 4.4
-22, -56, 44, 2.2, 5.6, 4.4
-22, -55, 44, 2.2, 5.5, 4.4
-22, -54, 44, 2.2, 5.4, 4.4
-22, -53, 44, 2.2, 5.3, 4.4
-22, -52, 44, 2.2, 5.2, 4.4
-22, -51, 44, 2.2, 5.1, 4.4
-22, -50, 44, 2.2, 5.0, 4.4
-22, -49, 44, 2.2, 4.9, 4.4
-22, -48, 44, 2.2, 4.8, 4.4
-22, -47, 44, 2.2, 4.7, 4.4
-22, -46, 44, 2.2, 4.6, 4.4
-22, -45, 44, 2.2, 4.5, 4.4
-22, -44, 44, 2.2, 4.4, 4.4
-22, -43, 44, 2.2, 4.3, 4.4
-22, -42, 44, 2.2, 4.2, 4.4
-22, -41, 44, 2.2, 4.1, 4.4
-22, -40, 44, 2.2, 4.0, 4.4
-22, -39, 44, 2.2, 3.9, 4.4
-22, -38, 44, 2.2, 3.8, 4.4
-22, -37, 44, 2.2, 3.7, 4.4
-22, -36, 44, 2.2, 3.6, 4.4
-22, -35, 44, 2.2, 3.5, 4.4
-22, -34, 44, 2.2, 3.4, 4.4
-22, -33, 44, 2.2, 3.3, 4.4
-22, -32, 44, 2.2, 3.2, 4.4
-22, -31, 44, 2.2, 3.1, 4.4
-22, -30, 44, 2.2, 3.0, 4.4
-22, -29, 44, 2.2, 2.9, 4.4
-22, -28, 44, 2.2, 2.8, 4.4
-22, -27, 44, 2.2, 2.7, 4.4
-22, -26, 44, 2.2, 2.6, 4.4
-22, -25, 44, 2.2, 2.5, 4.4
-22, -24, 44, 2.2, 2.4, 4.4
-22, -23, 44, 2.2, 2.3, 4.4
-22, -22, 44, 2.2, 2.2, 4.4
-22, -21, 42, 2.2, 2.1, 4.2
-22, -20, 40, 2.2, 2.0, 4.0
-22, -19, 38, 2.2, 1.9, 3.8
-22, -18, 36, 2.2, 1.8, 3.6
-22, -17, 34, 2.2, 1.7, 3.4
-22, -16, 32, 2.2, 1.6, 3.2
-22, -15, 30, 2.2, 1.5, 3.0
-22, -14, 28, 2.2, 1.4, 2.8
-22, -13, 26, 2.2, 1.3, 2.6
-22, -12, 24, 2.2, 1.2, 2.4
-22, -11, 22, 2.2, 1.1, 2.2
-22, -10, 20, 2.2, 1.0, 2.0
-22, -9, 18, 2.2, 0.9, 1.8
-22, -8, 16, 2.2, 0.8, 1.6
-22, -7, 14, 2.2, 0.7, 1.4
-22, -6, 12, 2.2, 0.6, 1.2
-22, -5, 10, 2.2, 0.5, 1.0
-22, -4, 8, 2.2, 0.4, 0.8
-22, -3, 6, 2.2, 0.3, 0.6
-22, -2, 4, 2.2, 0.2, 0.4
-22, -1, 2, 2.2, 0.1, 0.2
-22, 0, 0, 2.2, 0.0, 0.0
-22, 1, -2, 2.2, 0.1, 0.2
-22, 2, -4, 2.2, 0.2, 0.4
-22, 3, -6, 2.2, 0.3, 0.6
-22, 4, -8, 2.2, 0.4, 0.8
-22, 5, -10, 2.2, 0.5, 1.0
-22, 6, -12, 2.2, 0.6, 1.2
-22, 7, -14, 2.2, 0.7, 1.4
-22, 8, -16, 2.2, 0.8, 1.6
-22, 9, -18, 2.2, 0.9, 1.8
-22, 10, -20, 2.2, 1.0, 2.0
-22, 11, -22, 2.2, 1.1, 2.2
-22, 12, -24, 2.2, 1.2, 2.4
-22, 13, -26, 2.2, 1.3, 2.6
-22, 14, -28, 2.2, 1.4, 2.8
-22, 15, -30, 2.2, 1.5, 3.0
-22, 16, -32, 2.2, 1.6, 3.2
-22, 17, -34, 2.2, 1.7, 3.4
-22, 18, -36, 2.2, 1.8, 3.6
-22, 19, -38, 2.2, 1.9, 3.8
-22, 20, -40, 2.2, 2.0, 4.0
-22, 21, -42, 2.2, 2.1, 4.2
-22, 22, -44, 2.2, 2.2, 4.4
-22, 23, -44, 2.2, 2.3, 4.4
-22, 24, -44, 2.2, 2.4, 4.4
-22, 25, -44, 2.2, 2.5, 4.4
-22, 26, -44, 2.2, 2.6, 4.4
-22, 27, -44, 2.2, 2.7, 4.4
-22, 28, -44, 2.2, 2.8, 4.4
-22, 29, -44, 2.2, 2.9, 4.4
-22, 30, -44, 2.2, 3.0, 4.4
-22, 31, -44, 2.2, 3.1, 4.4
-22, 32, -44, 2.2, 3.2, 4.4
-22, 33, -44, 2.2, 3.3, 4.4
-22, 34, -44, 2.2, 3.4, 4.4
-22, 35, -44, 2.2, 3.5, 4.4
-22, 36, -44, 2.2, 3.6, 4.4
-22, 37, -44, 2.2, 3.7, 4.4
-22, 38, -44, 2.2, 3.8, 4.4
-22, 39, -44, 2.2, 3.9, 4.4
-22, 40, -44, 2.2, 4.0, 4.4
-22, 41, -44, 2.2, 4.1, 4.4
-22, 42, -44, 2.2, 4.2, 4.4
-22, 43, -44, 2.2, 4.3, 4.4
-22, 44, -44, 2.2, 4.4, 4.4
-22, 45, -44, 2.2, 4.5, 4.4
-22, 46, -44, 2.2, 4.6, 4.4
-22, 47, -44, 2.2, 4.7, 4.4
-22, 48, -44, 2.2, 4.8, 4.4
-22, 49, -44, 2.2, 4.9, 4.4
-22, 50, -44, 2.2, 5.0, 4.4
-22, 51, -44, 2.2, 5.1, 4.4
-22, 52, -44, 2.2, 5.2, 4.4
-22, 53, -44, 2.2, 5.3, 4.4
-22, 54, -44, 2.2, 5.4, 4.4
-22, 55, -44, 2.2, 5.5, 4.4
-22, 56, -44, 2.2, 5.6, 4.4
-22, 57, -44, 2.2, 5.7, 4.4
-22, 58, -44, 2.2, 5.8, 4.4
-22, 59, -44, 2.2, 5.9, 4.4
-22, 60, -44, 2.2, 6.0, 4.4
-22, 61, -44, 2.2, 6.1, 4.4
-22, 62, -44, 2.2, 6.2, 4.4
-22, 63, -44, 2.2, 6.3, 4.4
-22, 64, -44, 2.2, 6.4, 4.4
-22, 65, -44, 2.2, 6.5, 4.4
-22, 66, -44, 2.2, 6.6, 4.4
-22, 67, -44, 2.2, 6.7, 4.4
-22, 68, -44, 2.2, 6.8, 4.4
-22, 69, -44, 2.2, 6.9, 4.4
-22, 70, -44, 2.2, 7.0, 4.4
-22, 71, -44, 2.2, 7.1, 4.4
-22, 72, -44, 2.2, 7.2, 4.4
-22, 73, -44, 2.2, 7.3, 4.4
-22, 74, -44, 2.2, 7.4, 4.4
-22, 75, -44, 2.2, 7.5, 4.4
-22, 76, -44, 2.2, 7.6, 4.4
-22, 77, -44, 2.2, 7.7, 4.4
-22, 78, -44, 2.2, 7.8, 4.4
-22, 79, -44, 2.2, 7.9, 4.4
-22, 80, -44, 2.2, 8.0, 4.4
-22, 81, -44, 2.2, 8.1, 4.4
-22, 82, -44, 2.2, 8.2, 4.4
-22, 83, -44, 2.2, 8.3, 4.4
-22, 84, -44, 2.2, 8.4, 4.4
-22, 85, -44, 2.2, 8.5, 4.4
-22, 86, -44, 2.2, 8.6, 4.4
-22, 87, -44, 2.2, 8.7, 4.4
-22, 88, -44, 2.2, 8.8, 4.4
-22, 89, -44, 2.2, 8.9, 4.4
-22, 90, -44, 2.2, 9.0, 4.4
-22, 91, -44, 2.2, 9.1, 4.4
-22, 92, -44, 2.2, 9.2, 4.4
-22, 93, -44, 2.2, 9.3, 4.4
-22, 94, -44, 2.2, 9.4, 4.4
-22, 95, -44, 2.2, 9.5, 4.4
-22, 96, -44, 2.2, 9.6, 4.4
-22, 97, -44, 2.2, 9.7, 4.4
-22, 98, -44, 2.2, 9.8, 4.4
-22, 99, -44, 2.2, 9.9, 4.4
-22, 100, -44, 2.2, 10.0, 4.4
-21, -100, 42, 2.1, 10.0, 4.2
-21, -99, 42, 2.1, 9.9, 4.2
-21, -98, 42, 2.1, 9.8, 4.2
-21, -97, 42, 2.1, 9.7, 4.2
-21, -96, 42, 2.1, 9.6, 4.2
-21, -95, 42, 2.1, 9.5, 4.2
-21, -94, 42, 2.1, 9.4, 4.2
-21, -93, 42, 2.1, 9.3, 4.2
-21, -92, 42, 2.1, 9.2, 4.2
-21, -91, 42, 2.1, 9.1, 4.2
-21, -90, 42, 2.1, 9.0, 4.2
-21, -89, 42, 2.1, 8.9, 4.2
-21, -88, 42, 2.1, 8.8, 4.2
-21, -87, 42, 2.1, 8.7, 4.2
-21, -86, 42, 2.1, 8.6, 4.2
-21, -85, 42, 2.1, 8.5, 4.2
-21, -84, 42, 2.1, 8.4, 4.2
-21, -83, 42, 2.1, 8.3, 4.2
-21, -82, 42, 2.1, 8.2, 4.2
-21, -81, 42, 2.1, 8.1, 4.2
-21, -80, 42, 2.1, 8.0, 4.2
-21, -79, 42, 2.1, 7.9, 4.2
-21, -78, 42, 2.1, 7.8, 4.2
-21, -77, 42, 2.1, 7.7, 4.2
-21, -76, 42, 2.1, 7.6, 4.2
-21, -75, 42, 2.1, 7.5, 4.2
-21, -74, 42, 2.1, 7.4, 4.2
-21, -73, 42, 2.1, 7.3, 4.2
-21, -72, 42, 2.1, 7.2, 4.2
-21, -71, 42, 2.1, 7.1, 4.2
-21, -70, 42, 2.1, 7.0, 4.2
-21, -69, 42, 2.1, 6.9, 4.2
-21, -68, 42, 2.1, 6.8, 4.2
-21, -67, 42, 2.1, 6.7, 4.2
-21, -66, 42, 2.1, 6.6, 4.2
-21, -65, 42, 2.1, 6.5, 4.2
-21, -64, 42, 2.1, 6.4, 4.2
-21, -63, 42, 2.1, 6.3, 4.2
-21, -62, 42, 2.1, 6.2, 4.2
-21, -61, 42, 2.1, 6.1, 4.2
-21, -60, 42, 2.1, 6.0, 4.2
-21, -59, 42, 2.1, 5.9, 4.2
-21, -58, 42, 2.1, 5.8, 4.2
-21, -57, 42, 2.1, 5.7, 4.2
-21, -56, 42, 2.1, 5.6, 4.2
-21, -55, 42, 2.1, 5.5, 4.2
-21, -54, 42, 2.1, 5.4, 4.2
-21, -53, 42, 2.1, 5.3, 4.2
-21, -52, 42, 2.1, 5.2, 4.2
-21, -51, 42, 2.1, 5.1, 4.2
-21, -50, 42, 2.1, 5.0, 4.2
-21, -49, 42, 2.1, 4.9, 4.2
-21, -48, 42, 2.1, 4.8, 4.2
-21, -47, 42, 2.1, 4.7, 4.2
-21, -46, 42, 2.1, 4.6, 4.2
-21, -45, 42, 2.1, 4.5, 4.2
-21, -44, 42, 2.1, 4.4, 4.2
-21, -43, 42, 2.1, 4.3, 4.2
-21, -42, 42, 2.1, 4.2, 4.2
-21, -41, 42, 2.1, 4.1, 4.2
-21, -40, 42, 2.1, 4.0, 4.2
-21, -39, 42, 2.1, 3.9, 4.2
-21, -38, 42, 2.1, 3.8, 4.2
-21, -37, 42, 2.1, 3.7, 4.2
-21, -36, 42, 2.1, 3.6, 4.2
-21, -35, 42, 2.1, 3.5, 4.2
-21, -34, 42, 2.1, 3.4, 4.2
-21, -33, 42, 2.1, 3.3, 4.2
-21, -32, 42, 2.1, 3.2, 4.2
-21, -31, 42, 2.1, 3.1, 4.2
-21, -30, 42, 2.1, 3.0, 4.2
-21, -29, 42, 2.1, 2.9, 4.2
-21, -28, 42, 2.1, 2.8, 4.2
-21, -27, 42, 2.1, 2.7, 4.2
-21, -26, 42, 2.1, 2.6, 4.2
-21, -25, 42, 2.1, 2.5, 4.2
-21, -24, 42, 2.1, 2.4, 4.2
-21, -23, 42, 2.1, 2.3, 4.2
-21, -22, 42, 2.1, 2.2, 4.2
-21, -21, 42, 2.1, 2.1, 4.2
-21, -20, 40, 2.1, 2.0, 4.0
-21, -19, 38, 2.1, 1.9, 3.8
-21, -18, 36, 2.1, 1.8, 3.6
-21, -17, 34, 2.1, 1.7, 3.4
-21, -16, 32, 2.1, 1.6, 3.2
-21, -15, 30, 2.1, 1.5, 3.0
-21, -14, 28, 2.1, 1.4, 2.8
-21, -13, 26, 2.1, 1.3, 2.6
-21, -12, 24, 2.1, 1.2, 2.4
-21, -11, 22, 2.1, 1.1, 2.2
-21, -10, 20, 2.1, 1.0, 2.0
-21, -9, 18, 2.1, 0.9, 1.8
-21, -8, 16, 2.1, 0.8, 1.6
-21, -7, 14, 2.1, 0.7, 1.4
-21, -6, 12, 2.1, 0.6, 1.2
-21, -5, 10, 2.1, 0.5, 1.0
-21, -4, 8, 2.1, 0.4, 0.8
-21, -3, 6, 2.1, 0.3, 0.6
-21, -2, 4, 2.1, 0.2, 0.4
-21, -1, 2, 2.1, 0.1, 0.2
-21, 0, 0, 2.1, 0.0, 0.0
-21, 1, -2, 2.1, 0.1, 0.2
-21, 2, -4, 2.1, 0.2, 0.4
-21, 3, -6, 2.1, 0.3, 0.6
-21, 4, -8, 2.1, 0.4, 0.8
-21, 5, -10, 2.1, 0.5, 1.0
-21, 6, -12, 2.1, 0.6, 1.2
-21, 7, -14, 2.1, 0.7, 1.4
-21, 8, -16, 2.1, 0.8, 1.6
-21, 9, -18, 2.1, 0.9, 1.8
-21, 10, -20, 2.1, 1.0, 2.0
-21, 11, -22, 2.1, 1.1, 2.2
-21, 12, -24, 2.1, 1.2, 2.4
-21, 13, -26, 2.1, 1.3, 2.6
-21, 14, -28, 2.1, 1.4, 2.8
-21, 15, -30, 2.1, 1.5, 3.0
-21, 16, -32, 2.1, 1.6, 3.2
-21, 17, -34, 2.1, 1.7, 3.4
-21, 18, -36, 2.1, 1.8, 3.6
-21, 19, -38, 2.1, 1.9, 3.8
-21, 20, -40, 2.1, 2.0, 4.0
-21, 21, -42, 2.1, 2.1, 4.2
-21, 22, -42, 2.1, 2.2, 4.2
-21, 23, -42, 2.1, 2.3, 4.2
-21, 24, -42, 2.1, 2.4, 4.2
-21, 25, -42, 2.1, 2.5, 4.2
-21, 26, -42, 2.1, 2.6, 4.2
-21, 27, -42, 2.1, 2.7, 4.2
-21, 28, -42, 2.1, 2.8, 4.2
-21, 29, -42, 2.1, 2.9, 4.2
-21, 30, -42, 2.1, 3.0, 4.2
-21, 31, -42, 2.1, 3.1, 4.2
-21, 32, -42, 2.1, 3.2, 4.2
-21, 33, -42, 2.1, 3.3, 4.2
-21, 34, -42, 2.1, 3.4, 4.2
-21, 35, -42, 2.1, 3.5, 4.2
-21, 36, -42, 2.1, 3.6, 4.2
-21, 37, -42, 2.1, 3.7, 4.2
-21, 38, -42, 2.1, 3.8, 4.2
-21, 39, -42, 2.1, 3.9, 4.2
-21, 40, -42, 2.1, 4.0, 4.2
-21, 41, -42, 2.1, 4.1, 4.2
-21, 42, -42, 2.1, 4.2, 4.2
-21, 43, -42, 2.1, 4.3, 4.2
-21, 44, -42, 2.1, 4.4, 4.2
-21, 45, -42, 2.1, 4.5, 4.2
-21, 46, -42, 2.1, 4.6, 4.2
-21, 47, -42, 2.1, 4.7, 4.2
-21, 48, -42, 2.1, 4.8, 4.2
-21, 49, -42, 2.1, 4.9, 4.2
-21, 50, -42, 2.1, 5.0, 4.2
-21, 51, -42, 2.1, 5.1, 4.2
-21, 52, -42, 2.1, 5.2, 4.2
-21, 53, -42, 2.1, 5.3, 4.2
-21, 54, -42, 2.1, 5.4, 4.2
-21, 55, -42, 2.1, 5.5, 4.2
-21, 56, -42, 2.1, 5.6, 4.2
-21, 57, -42, 2.1, 5.7, 4.2
-21, 58, -42, 2.1, 5.8, 4.2
-21, 59, -42, 2.1, 5.9, 4.2
-21, 60, -42, 2.1, 6.0, 4.2
-21, 61, -42, 2.1, 6.1, 4.2
-21, 62, -42, 2.1, 6.2, 4.2
-21, 63, -42, 2.1, 6.3, 4.2
-21, 64, -42, 2.1, 6.4, 4.2
-21, 65, -42, 2.1, 6.5, 4.2
-21, 66, -42, 2.1, 6.6, 4.2
-21, 67, -42, 2.1, 6.7, 4.2
-21, 68, -42, 2.1, 6.8, 4.2
-21, 69, -42, 2.1, 6.9, 4.2
-21, 70, -42, 2.1, 7.0, 4.2
-21, 71, -42, 2.1, 7.1, 4.2
-21, 72, -42, 2.1, 7.2, 4.2
-21, 73, -42, 2.1, 7.3, 4.2
-21, 74, -42, 2.1, 7.4, 4.2
-21, 75, -42, 2.1, 7.5, 4.2
-21, 76, -42, 2.1, 7.6, 4.2
-21, 77, -42, 2.1, 7.7, 4.2
-21, 78, -42, 2.1, 7.8, 4.2
-21, 79, -42, 2.1, 7.9, 4.2
-21, 80, -42, 2.1, 8.0, 4.2
-21, 81, -42, 2.1, 8.1, 4.2
-21, 82, -42, 2.1, 8.2, 4.2
-21, 83, -42, 2.1, 8.3, 4.2
-21, 84, -42, 2.1, 8.4, 4.2
-21, 85, -42, 2.1, 8.5, 4.2
-21, 86, -42, 2.1, 8.6, 4.2
-21, 87, -42, 2.1, 8.7, 4.2
-21, 88, -42, 2.1, 8.8, 4.2
-21, 89, -42, 2.1, 8.9, 4.2
-21, 90, -42, 2.1, 9.0, 4.2
-21, 91, -42, 2.1, 9.1, 4.2
-21, 92, -42, 2.1, 9.2, 4.2
-21, 93, -42, 2.1, 9.3, 4.2
-21, 94, -42, 2.1, 9.4, 4.2
-21, 95, -42, 2.1, 9.5, 4.2
-21, 96, -42, 2.1, 9.6, 4.2
-21, 97, -42, 2.1, 9.7, 4.2
-21, 98, -42, 2.1, 9.8, 4.2
-21, 99, -42, 2.1, 9.9, 4.2
-21, 100, -42, 2.1, 10.0, 4.2
-20, -100, 40, 2.0, 10.0, 4.0
-20, -99, 40, 2.0, 9.9, 4.0
-20, -98, 40, 2.0, 9.8, 4.0
-20, -97, 40, 2.0, 9.7, 4.0
-20, -96, 40, 2.0, 9.6, 4.0
-20, -95, 40, 2.0, 9.5, 4.0
-20, -94, 40, 2.0, 9.4, 4.0
-20, -93, 40, 2.0, 9.3, 4.0
-20, -92, 40, 2.0, 9.2, 4.0
-20, -91, 40, 2.0, 9.1, 4.0
-20, -90, 40, 2.0, 9.0, 4.0
-20, -89, 40, 2.0, 8.9, 4.0
-20, -88, 40, 2.0, 8.8, 4.0
-20, -87, 40, 2.0, 8.7, 4.0
-20, -86, 40, 2.0, 8.6, 4.0
-20, -85, 40, 2.0, 8.5, 4.0
-20, -84, 40, 2.0, 8.4, 4.0
-20, -83, 40, 2.0, 8.3, 4.0
-20, -82, 40, 2.0, 8.2, 4.0
-20, -81, 40, 2.0, 8.1, 4.0
-20, -80, 40, 2.0, 8.0, 4.0
-20, -79, 40, 2.0, 7.9, 4.0
-20, -78, 40, 2.0, 7.8, 4.0
-20, -77, 40, 2.0, 7.7, 4.0
-20, -76, 40, 2.0, 7.6, 4.0
-20, -75, 40, 2.0, 7.5, 4.0
-20, -74, 40, 2.0, 7.4, 4.0
-20, -73, 40, 2.0, 7.3, 4.0
-20, -72, 40, 2.0, 7.2, 4.0
-20, -71, 40, 2.0, 7.1, 4.0
-20, -70, 40, 2.0, 7.0, 4.0
-20, -69, 40, 2.0, 6.9, 4.0
-20, -68, 40, 2.0, 6.8, 4.0
-20, -67, 40, 2.0, 6.7, 4.0
-20, -66, 40, 2.0, 6.6, 4.0
-20, -65, 40, 2.0, 6.5, 4.0
-20, -64, 40, 2.0, 6.4, 4.0
-20, -63, 40, 2.0, 6.3, 4.0
-20, -62, 40, 2.0, 6.2, 4.0
-20, -61, 40, 2.0, 6.1, 4.0
-20, -60, 40, 2.0, 6.0, 4.0
-20, -59, 40, 2.0, 5.9, 4.0
-20, -58, 40, 2.0, 5.8, 4.0
-20, -57, 40, 2.0, 5.7, 4.0
-20, -56, 40, 2.0, 5.6, 4.0
-20, -55, 40, 2.0, 5.5, 4.0
-20, -54, 40, 2.0, 5.4, 4.0
-20, -53, 40, 2.0, 5.3, 4.0
-20, -52, 40, 2.0, 5.2, 4.0
-20, -51, 40, 2.0, 5.1, 4.0
-20, -50, 40, 2.0, 5.0, 4.0
-20, -49, 40, 2.0, 4.9, 4.0
-20, -48, 40, 2.0, 4.8, 4.0
-20, -47, 40, 2.0, 4.7, 4.0
-20, -46, 40, 2.0, 4.6, 4.0
-20, -45, 40, 2.0, 4.5, 4.0
-20, -44, 40, 2.0, 4.4, 4.0
-20, -43, 40, 2.0, 4.3, 4.0
-20, -42, 40, 2.0, 4.2, 4.0
-20, -41, 40, 2.0, 4.1, 4.0
-20, -40, 40, 2.0, 4.0, 4.0
-20, -39, 40, 2.0, 3.9, 4.0
-20, -38, 40, 2.0, 3.8, 4.0
-20, -37, 40, 2.0, 3.7, 4.0
-20, -36, 40, 2.0, 3.6, 4.0
-20, -35, 40, 2.0, 3.5, 4.0
-20, -34, 40, 2.0, 3.4, 4.0
-20, -33, 40, 2.0, 3.3, 4.0
-20, -32, 40, 2.0, 3.2, 4.0
-20, -31, 40, 2.0, 3.1, 4.0
-20, -30, 40, 2.0, 3.0, 4.0
-20, -29, 40, 2.0, 2.9, 4.0
-20, -28, 40, 2.0, 2.8, 4.0
-20, -27, 40, 2.0, 2.7, 4.0
-20, -26, 40, 2.0, 2.6, 4.0
-20, -25, 40, 2.0, 2.5, 4.0
-20, -24, 40, 2.0, 2.4, 4.0
-20, -23, 40, 2.0, 2.3, 4.0
-20, -22, 40, 2.0, 2.2, 4.0
-20, -21, 40, 2.0, 2.1, 4.0
-20, -20, 40, 2.0, 2.0, 4.0
-20, -19, 38, 2.0, 1.9, 3.8
-20, -18, 36, 2.0, 1.8, 3.6
-20, -17, 34, 2.0, 1.7, 3.4
-20, -16, 32, 2.0, 1.6, 3.2
-20, -15, 30, 2.0, 1.5, 3.0
-20, -14, 28, 2.0, 1.4, 2.8
-20, -13, 26, 2.0, 1.3, 2.6
-20, -12, 24, 2.0, 1.2, 2.4
-20, -11, 22, 2.0, 1.1, 2.2
-20, -10, 20, 2.0, 1.0, 2.0
-20, -9, 18, 2.0, 0.9, 1.8
-20, -8, 16, 2.0, 0.8, 1.6
-20, -7, 14, 2.0, 0.7, 1.4
-20, -6, 12, 2.0, 0.6, 1.2
-20, -5, 10, 2.0, 0.5, 1.0
-20, -4, 8, 2.0, 0.4, 0.8
-20, -3, 6, 2.0, 0.3, 0.6
-20, -2, 4, 2.0, 0.2, 0.4
-20, -1, 2, 2.0, 0.1, 0.2
-20, 0, 0, 2.0, 0.0, 0.0
-20, 1, -2, 2.0, 0.1, 0.2
-20, 2, -4, 2.0, 0.2, 0.4
-20, 3, -6, 2.0, 0.3, 0.6
-20, 4, -8, 2.0, 0.4, 0.8
-20, 5, -10, 2.0, 0.5, 1.0
-20, 6, -12, 2.0, 0.6, 1.2
-20, 7, -14, 2.0, 0.7, 1.4
-20, 8, -16, 2.0, 0.8, 1.6
-20, 9, -18, 2.0, 0.9, 1.8
-20, 10, -20, 2.0, 1.0, 2.0
-20, 11, -22, 2.0, 1.1, 2.2
-20, 12, -24, 2.0, 1.2, 2.4
-20, 13, -26, 2.0, 1.3, 2.6
-20, 14, -28, 2.0, 1.4, 2.8
-20, 15, -30, 2.0, 1.5, 3.0
-20, 16, -32, 2.0, 1.6, 3.2
-20, 17, -34, 2.0, 1.7, 3.4
-20, 18, -36, 2.0, 1.8, 3.6
-20, 19, -38, 2.0, 1.9, 3.8
-20, 20, -40, 2.0, 2.0, 4.0
-20, 21, -40, 2.0, 2.1, 4.0
-20, 22, -40, 2.0, 2.2, 4.0
-20, 23, -40, 2.0, 2.3, 4.0
-20, 24, -40, 2.0, 2.4, 4.0
-20, 25, -40, 2.0, 2.5, 4.0
-20, 26, -40, 2.0, 2.6, 4.0
-20, 27, -40, 2.0, 2.7, 4.0
-20, 28, -40, 2.0, 2.8, 4.0
-20, 29, -40, 2.0, 2.9, 4.0
-20, 30, -40, 2.0, 3.0, 4.0
-20, 31, -40, 2.0, 3.1, 4.0
-20, 32, -40, 2.0, 3.2, 4.0
-20, 33, -40, 2.0, 3.3, 4.0
-20, 34, -40, 2.0, 3.4, 4.0
-20, 35, -40, 2.0, 3.5, 4.0
-20, 36, -40, 2.0, 3.6, 4.0
-20, 37, -40, 2.0, 3.7, 4.0
-20, 38, -40, 2.0, 3.8, 4.0
-20, 39, -40, 2.0, 3.9, 4.0
-20, 40, -40, 2.0, 4.0, 4.0
-20, 41, -40, 2.0, 4.1, 4.0
-20, 42, -40, 2.0, 4.2, 4.0
-20, 43, -40, 2.0, 4.3, 4.0
-20, 44, -40, 2.0, 4.4, 4.0
-20, 45, -40, 2.0, 4.5, 4.0
-20, 46, -40, 2.0, 4.6, 4.0
-20, 47, -40, 2.0, 4.7, 4.0
-20, 48, -40, 2.0, 4.8, 4.0
-20, 49, -40, 2.0, 4.9, 4.0
-20, 50, -40, 2.0, 5.0, 4.0
-20, 51, -40, 2.0, 5.1, 4.0
-20, 52, -40, 2.0, 5.2, 4.0
-20, 53, -40, 2.0, 5.3, 4.0
-20, 54, -40, 2.0, 5.4, 4.0
-20, 55, -40, 2.0, 5.5, 4.0
-20, 56, -40, 2.0, 5.6, 4.0
-20, 57, -40, 2.0, 5.7, 4.0
-20, 58, -40, 2.0, 5.8, 4.0
-20, 59, -40, 2.0, 5.9, 4.0
-20, 60, -40, 2.0, 6.0, 4.0
-20, 61, -40, 2.0, 6.1, 4.0
-20, 62, -40, 2.0, 6.2, 4.0
-20, 63, -40, 2.0, 6.3, 4.0
-20, 64, -40, 2.0, 6.4, 4.0
-20, 65, -40, 2.0, 6.5, 4.0
-20, 66, -40, 2.0, 6.6, 4.0
-20, 67, -40, 2.0, 6.7, 4.0
-20, 68, -40, 2.0, 6.8, 4.0
-20, 69, -40, 2.0, 6.9, 4.0
-20, 70, -40, 2.0, 7.0, 4.0
-20, 71, -40, 2.0, 7.1, 4.0
-20, 72, -40, 2.0, 7.2, 4.0
-20, 73, -40, 2.0, 7.3, 4.0
-20, 74, -40, 2.0, 7.4, 4.0
-20, 75, -40, 2.0, 7.5, 4.0
-20, 76, -40, 2.0, 7.6, 4.0
-20, 77, -40, 2.0, 7.7, 4.0
-20, 78, -40, 2.0, 7.8, 4.0
-20, 79, -40, 2.0, 7.9, 4.0
-20, 80, -40, 2.0, 8.0, 4.0
-20, 81, -40, 2.0, 8.1, 4.0
-20, 82, -40, 2.0, 8.2, 4.0
-20, 83, -40, 2.0, 8.3, 4.0
-20, 84, -40, 2.0, 8.4, 4.0
-20, 85, -40, 2.0, 8.5, 4.0
-20, 86, -40, 2.0, 8.6, 4.0
-20, 87, -40, 2.0, 8.7, 4.0
-20, 88, -40, 2.0, 8.8, 4.0
-20, 89, -40, 2.0, 8.9, 4.0
-20, 90, -40, 2.0, 9.0, 4.0
-20, 91, -40, 2.0, 9.1, 4.0
-20, 92, -40, 2.0, 9.2, 4.0
-20, 93, -40, 2.0, 9.3, 4.0
-20, 94, -40, 2.0, 9.4, 4.0
-20, 95, -40, 2.0, 9.5, 4.0
-20, 96, -40, 2.0, 9.6, 4.0
-20, 97, -40, 2.0, 9.7, 4.0
-20, 98, -40, 2.0, 9.8, 4.0
-20, 99, -40, 2.0, 9.9, 4.0
-20, 100, -40, 2.0, 10.0, 4.0
-19, -100, 38, 1.9, 10.0, 3.8
-19, -99, 38, 1.9, 9.9, 3.8
-19, -98, 38, 1.9, 9.8, 3.8
-19, -97, 38, 1.9, 9.7, 3.8
-19, -96, 38, 1.9, 9.6, 3.8
-19, -95, 38, 1.9, 9.5, 3.8
-19, -94, 38, 1.9, 9.4, 3.8
-19, -93, 38, 1.9, 9.3, 3.8
-19, -92, 38, 1.9, 9.2, 3.8
-19, -91, 38, 1.9, 9.1, 3.8
-19, -90, 38, 1.9, 9.0, 3.8
-19, -89, 38, 1.9, 8.9, 3.8
-19, -88, 38, 1.9, 8.8, 3.8
-19, -87, 38, 1.9, 8.7, 3.8
-19, -86, 38, 1.9, 8.6, 3.8
-19, -85, 38, 1.9, 8.5, 3.8
-19, -84, 38, 1.9, 8.4, 3.8
-19, -83, 38, 1.9, 8.3, 3.8
-19, -82, 38, 1.9, 8.2, 3.8
-19, -81, 38, 1.9, 8.1, 3.8
-19, -80, 38, 1.9, 8.0, 3.8
-19, -79, 38, 1.9, 7.9, 3.8
-19, -78, 38, 1.9, 7.8, 3.8
-19, -77, 38, 1.9, 7.7, 3.8
-19, -76, 38, 1.9, 7.6, 3.8
-19, -75, 38, 1.9, 7.5, 3.8
-19, -74, 38, 1.9, 7.4, 3.8
-19, -73, 38, 1.9, 7.3, 3.8
-19, -72, 38, 1.9, 7.2, 3.8
-19, -71, 38, 1.9, 7.1, 3.8
-19, -70, 38, 1.9, 7.0, 3.8
-19, -69, 38, 1.9, 6.9, 3.8
-19, -68, 38, 1.9, 6.8, 3.8
-19, -67, 38, 1.9, 6.7, 3.8
-19, -66, 38, 1.9, 6.6, 3.8
-19, -65, 38, 1.9, 6.5, 3.8
-19, -64, 38, 1.9, 6.4, 3.8
-19, -63, 38, 1.9, 6.3, 3.8
-19, -62, 38, 1.9, 6.2, 3.8
-19, -61, 38, 1.9, 6.1, 3.8
-19, -60, 38, 1.9, 6.0, 3.8
-19, -59, 38, 1.9, 5.9, 3.8
-19, -58, 38, 1.9, 5.8, 3.8
-19, -57, 38, 1.9, 5.7, 3.8
-19, -56, 38, 1.9, 5.6, 3.8
-19, -55, 38, 1.9, 5.5, 3.8
-19, -54, 38, 1.9, 5.4, 3.8
-19, -53, 38, 1.9, 5.3, 3.8
-19, -52, 38, 1.9, 5.2, 3.8
-19, -51, 38, 1.9, 5.1, 3.8
-19, -50, 38, 1.9, 5.0, 3.8
-19, -49, 38, 1.9, 4.9, 3.8
-19, -48, 38, 1.9, 4.8, 3.8
-19, -47, 38, 1.9, 4.7, 3.8
-19, -46, 38, 1.9, 4.6, 3.8
-19, -45, 38, 1.9, 4.5, 3.8
-19, -44, 38, 1.9, 4.4, 3.8
-19, -43, 38, 1.9, 4.3, 3.8
-19, -42, 38, 1.9, 4.2, 3.8
-19, -41, 38, 1.9, 4.1, 3.8
-19, -40, 38, 1.9, 4.0, 3.8
-19, -39, 38, 1.9, 3.9, 3.8
-19, -38, 38, 1.9, 3.8, 3.8
-19, -37, 38, 1.9, 3.7, 3.8
-19, -36, 38, 1.9, 3.6, 3.8
-19, -35, 38, 1.9, 3.5, 3.8
-19, -34, 38, 1.9, 3.4, 3.8
-19, -33, 38, 1.9, 3.3, 3.8
-19, -32, 38, 1.9, 3.2, 3.8
-19, -31, 38, 1.9, 3.1, 3.8
-19, -30, 38, 1.9, 3.0, 3.8
-19, -29, 38, 1.9, 2.9, 3.8
-19, -28, 38, 1.9, 2.8, 3.8
-19, -27, 38, 1.9, 2.7, 3.8
-19, -26, 38, 1.9, 2.6, 3.8
-19, -25, 38, 1.9, 2.5, 3.8
-19, -24, 38, 1.9, 2.4, 3.8
-19, -23, 38, 1.9, 2.3, 3.8
-19, -22, 38, 1.9, 2.2, 3.8
-19, -21, 38, 1.9, 2.1, 3.8
-19, -20, 38, 1.9, 2.0, 3.8
-19, -19, 38, 1.9, 1.9, 3.8
-19, -18, 36, 1.9, 1.8, 3.6
-19, -17, 34, 1.9, 1.7, 3.4
-19, -16, 32, 1.9, 1.6, 3.2
-19, -15, 30, 1.9, 1.5, 3.0
-19, -14, 28, 1.9, 1.4, 2.8
-19, -13, 26, 1.9, 1.3, 2.6
-19, -12, 24, 1.9, 1.2, 2.4
-19, -11, 22, 1.9, 1.1, 2.2
-19, -10, 20, 1.9, 1.0, 2.0
-19, -9, 18, 1.9, 0.9, 1.8
-19, -8, 16, 1.9, 0.8, 1.6
-19, -7, 14, 1.9, 0.7, 1.4
-19, -6, 12, 1.9, 0.6, 1.2
-19, -5, 10, 1.9, 0.5, 1.0
-19, -4, 8, 1.9, 0.4, 0.8
-19, -3, 6, 1.9, 0.3, 0.6
-19, -2, 4, 1.9, 0.2, 0.4
-19, -1, 2, 1.9, 0.1, 0.2
-19, 0, 0, 1.9, 0.0, 0.0
-19, 1, -2, 1.9, 0.1, 0.2
-19, 2, -4, 1.9, 0.2, 0.4
-19, 3, -6, 1.9, 0.3, 0.6
-19, 4, -8, 1.9, 0.4, 0.8
-19, 5, -10, 1.9, 0.5, 1.0
-19, 6, -12, 1.9, 0.6, 1.2
-19, 7, -14, 1.9, 0.7, 1.4
-19, 8, -16, 1.9, 0.8, 1.6
-19, 9, -18, 1.9, 0.9, 1.8
-19, 10, -20, 1.9, 1.0, 2.0
-19, 11, -22, 1.9, 1.1, 2.2
-19, 12, -24, 1.9, 1.2, 2.4
-19, 13, -26, 1.9, 1.3, 2.6
-19, 14, -28, 1.9, 1.4, 2.8
-19, 15, -30, 1.9, 1.5, 3.0
-19, 16, -32, 1.9, 1.6, 3.2
-19, 17, -34, 1.9, 1.7, 3.4
-19, 18, -36, 1.9, 1.8, 3.6
-19, 19, -38, 1.9, 1.9, 3.8
-19, 20, -38, 1.9, 2.0, 3.8
-19, 21, -38, 1.9, 2.1, 3.8
-19, 22, -38, 1.9, 2.2, 3.8
-19, 23, -38, 1.9, 2.3, 3.8
-19, 24, -38, 1.9, 2.4, 3.8
-19, 25, -38, 1.9, 2.5, 3.8
-19, 26, -38, 1.9, 2.6, 3.8
-19, 27, -38, 1.9, 2.7, 3.8
-19, 28, -38, 1.9, 2.8, 3.8
-19, 29, -38, 1.9, 2.9, 3.8
-19, 30, -38, 1.9, 3.0, 3.8
-19, 31, -38, 1.9, 3.1, 3.8
-19, 32, -38, 1.9, 3.2, 3.8
-19, 33, -38, 1.9, 3.3, 3.8
-19, 34, -38, 1.9, 3.4, 3.8
-19, 35, -38, 1.9, 3.5, 3.8
-19, 36, -38, 1.9, 3.6, 3.8
-19, 37, -38, 1.9, 3.7, 3.8
-19, 38, -38, 1.9, 3.8, 3.8
-19, 39, -38, 1.9, 3.9, 3.8
-19, 40, -38, 1.9, 4.0, 3.8
-19, 41, -38, 1.9, 4.1, 3.8
-19, 42, -38, 1.9, 4.2, 3.8
-19, 43, -38, 1.9, 4.3, 3.8
-19, 44, -38, 1.9, 4.4, 3.8
-19, 45, -38, 1.9, 4.5, 3.8
-19, 46, -38, 1.9, 4.6, 3.8
-19, 47, -38, 1.9, 4.7, 3.8
-19, 48, -38, 1.9, 4.8, 3.8
-19, 49, -38, 1.9, 4.9, 3.8
-19, 50, -38, 1.9, 5.0, 3.8
-19, 51, -38, 1.9, 5.1, 3.8
-19, 52, -38, 1.9, 5.2, 3.8
-19, 53, -38, 1.9, 5.3, 3.8
-19, 54, -38, 1.9, 5.4, 3.8
-19, 55, -38, 1.9, 5.5, 3.8
-19, 56, -38, 1.9, 5.6, 3.8
-19, 57, -38, 1.9, 5.7, 3.8
-19, 58, -38, 1.9, 5.8, 3.8
-19, 59, -38, 1.9, 5.9, 3.8
-19, 60, -38, 1.9, 6.0, 3.8
-19, 61, -38, 1.9, 6.1, 3.8
-19, 62, -38, 1.9, 6.2, 3.8
-19, 63, -38, 1.9, 6.3, 3.8
-19, 64, -38, 1.9, 6.4, 3.8
-19, 65, -38, 1.9, 6.5, 3.8
-19, 66, -38, 1.9, 6.6, 3.8
-19, 67, -38, 1.9, 6.7, 3.8
-19, 68, -38, 1.9, 6.8, 3.8
-19, 69, -38, 1.9, 6.9, 3.8
-19, 70, -38, 1.9, 7.0, 3.8
-19, 71, -38, 1.9, 7.1, 3.8
-19, 72, -38, 1.9, 7.2, 3.8
-19, 73, -38, 1.9, 7.3, 3.8
-19, 74, -38, 1.9, 7.4, 3.8
-19, 75, -38, 1.9, 7.5, 3.8
-19, 76, -38, 1.9, 7.6, 3.8
-19, 77, -38, 1.9, 7.7, 3.8
-19, 78, -38, 1.9, 7.8, 3.8
-19, 79, -38, 1.9, 7.9, 3.8
-19, 80, -38, 1.9, 8.0, 3.8
-19, 81, -38, 1.9, 8.1, 3.8
-19, 82, -38, 1.9, 8.2, 3.8
-19, 83, -38, 1.9, 8.3, 3.8
-19, 84, -38, 1.9, 8.4, 3.8
-19, 85, -38, 1.9, 8.5, 3.8
-19, 86, -38, 1.9, 8.6, 3.8
-19, 87, -38, 1.9, 8.7, 3.8
-19, 88, -38, 1.9, 8.8, 3.8
-19, 89, -38, 1.9, 8.9, 3.8
-19, 90, -38, 1.9, 9.0, 3.8
-19, 91, -38, 1.9, 9.1, 3.8
-19, 92, -38, 1.9, 9.2, 3.8
-19, 93, -38, 1.9, 9.3, 3.8
-19, 94, -38, 1.9, 9.4, 3.8
-19, 95, -38, 1.9, 9.5, 3.8
-19, 96, -38, 1.9, 9.6, 3.8
-19, 97, -38, 1.9, 9.7, 3.8
-19, 98, -38, 1.9, 9.8, 3.8
-19, 99, -38, 1.9, 9.9, 3.8
-19, 100, -38, 1.9, 10.0, 3.8
-18, -100, 36, 1.8, 10.0, 3.6
-18, -99, 36, 1.8, 9.9, 3.6
-18, -98, 36, 1.8, 9.8, 3.6
-18, -97, 36, 1.8, 9.7, 3.6
-18, -96, 36, 1.8, 9.6, 3.6
-18, -95, 36, 1.8, 9.5, 3.6
-18, -94, 36, 1.8, 9.4, 3.6
-18, -93, 36, 1.8, 9.3, 3.6
-18, -92, 36, 1.8, 9.2, 3.6
-18, -91, 36, 1.8, 9.1, 3.6
-18, -90, 36, 1.8, 9.0, 3.6
-18, -89, 36, 1.8, 8.9, 3.6
-18, -88, 36, 1.8, 8.8, 3.6
-18, -87, 36, 1.8, 8.7, 3.6
-18, -86, 36, 1.8, 8.6, 3.6
-18, -85, 36, 1.8, 8.5, 3.6
-18, -84, 36, 1.8, 8.4, 3.6
-18, -83, 36, 1.8, 8.3, 3.6
-18, -82, 36, 1.8, 8.2, 3.6
-18, -81, 36, 1.8, 8.1, 3.6
-18, -80, 36, 1.8, 8.0, 3.6
-18, -79, 36, 1.8, 7.9, 3.6
-18, -78, 36, 1.8, 7.8, 3.6
-18, -77, 36, 1.8, 7.7, 3.6
-18, -76, 36, 1.8, 7.6, 3.6
-18, -75, 36, 1.8, 7.5, 3.6
-18, -74, 36, 1.8, 7.4, 3.6
-18, -73, 36, 1.8, 7.3, 3.6
-18, -72, 36, 1.8, 7.2, 3.6
-18, -71, 36, 1.8, 7.1, 3.6
-18, -70, 36, 1.8, 7.0, 3.6
-18, -69, 36, 1.8, 6.9, 3.6
-18, -68, 36, 1.8, 6.8, 3.6
-18, -67, 36, 1.8, 6.7, 3.6
-18, -66, 36, 1.8, 6.6, 3.6
-18, -65, 36, 1.8, 6.5, 3.6
-18, -64, 36, 1.8, 6.4, 3.6
-18, -63, 36, 1.8, 6.3, 3.6
-18, -62, 36, 1.8, 6.2, 3.6
-18, -61, 36, 1.8, 6.1, 3.6
-18, -60, 36, 1.8, 6.0, 3.6
-18, -59, 36, 1.8, 5.9, 3.6
-18, -58, 36, 1.8, 5.8, 3.6
-18, -57, 36, 1.8, 5.7, 3.6
-18, -56, 36, 1.8, 5.6, 3.6
-18, -55, 36, 1.8, 5.5, 3.6
-18, -54, 36, 1.8, 5.4, 3.6
-18, -53, 36, 1.8, 5.3, 3.6
-18, -52, 36, 1.8, 5.2, 3.6
-18, -51, 36, 1.8, 5.1, 3.6
-18, -50, 36, 1.8, 5.0, 3.6
-18, -49, 36, 1.8, 4.9, 3.6
-18, -48, 36, 1.8, 4.8, 3.6
-18, -47, 36, 1.8, 4.7, 3.6
-18, -46, 36, 1.8, 4.6, 3.6
-18, -45, 36, 1.8, 4.5, 3.6
-18, -44, 36, 1.8, 4.4, 3.6
-18, -43, 36, 1.8, 4.3, 3.6
-18, -42, 36, 1.8, 4.2, 3.6
-18, -41, 36, 1.8, 4.1, 3.6
-18, -40, 36, 1.8, 4.0, 3.6
-18, -39, 36, 1.8, 3.9, 3.6
-18, -38, 36, 1.8, 3.8, 3.6
-18, -37, 36, 1.8, 3.7, 3.6
-18, -36, 36, 1.8, 3.6, 3.6
-18, -35, 36, 1.8, 3.5, 3.6
-18, -34, 36, 1.8, 3.4, 3.6
-18, -33, 36, 1.8, 3.3, 3.6
-18, -32, 36, 1.8, 3.2, 3.6
-18, -31, 36, 1.8, 3.1, 3.6
-18, -30, 36, 1.8, 3.0, 3.6
-18, -29, 36, 1.8, 2.9, 3.6
-18, -28, 36, 1.8, 2.8, 3.6
-18, -27, 36, 1.8, 2.7, 3.6
-18, -26, 36, 1.8, 2.6, 3.6
-18, -25, 36, 1.8, 2.5, 3.6
-18, -24, 36, 1.8, 2.4, 3.6
-18, -23, 36, 1.8, 2.3, 3.6
-18, -22, 36, 1.8, 2.2, 3.6
-18, -21, 36, 1.8, 2.1, 3.6
-18, -20, 36, 1.8, 2.0, 3.6
-18, -19, 36, 1.8, 1.9, 3.6
-18, -18, 36, 1.8, 1.8, 3.6
-18, -17, 34, 1.8, 1.7, 3.4
-18, -16, 32, 1.8, 1.6, 3.2
-18, -15, 30, 1.8, 1.5, 3.0
-18, -14, 28, 1.8, 1.4, 2.8
-18, -13, 26, 1.8, 1.3, 2.6
-18, -12, 24, 1.8, 1.2, 2.4
-18, -11, 22, 1.8, 1.1, 2.2
-18, -10, 20, 1.8, 1.0, 2.0
-18, -9, 18, 1.8, 0.9, 1.8
-18, -8, 16, 1.8, 0.8, 1.6
-18, -7, 14, 1.8, 0.7, 1.4
-18, -6, 12, 1.8, 0.6, 1.2
-18, -5, 10, 1.8, 0.5, 1.0
-18, -4, 8, 1.8, 0.4, 0.8
-18, -3, 6, 1.8, 0.3, 0.6
-18, -2, 4, 1.8, 0.2, 0.4
-18, -1, 2, 1.8, 0.1, 0.2
-18, 0, 0, 1.8, 0.0, 0.0
-18, 1, -2, 1.8, 0.1, 0.2
-18, 2, -4, 1.8, 0.2, 0.4
-18, 3, -6, 1.8, 0.3, 0.6
-18, 4, -8, 1.8, 0.4, 0.8
-18, 5, -10, 1.8, 0.5, 1.0
-18, 6, -12, 1.8, 0.6, 1.2
-18, 7, -14, 1.8, 0.7, 1.4
-18, 8, -16, 1.8, 0.8, 1.6
-18, 9, -18, 1.8, 0.9, 1.8
-18, 10, -20, 1.8, 1.0, 2.0
-18, 11, -22, 1.8, 1.1, 2.2
-18, 12, -24, 1.8, 1.2, 2.4
-18, 13, -26, 1.8, 1.3, 2.6
-18, 14, -28, 1.8, 1.4, 2.8
-18, 15, -30, 1.8, 1.5, 3.0
-18, 16, -32, 1.8, 1.6, 3.2
-18, 17, -34, 1.8, 1.7, 3.4
-18, 18, -36, 1.8, 1.8, 3.6
-18, 19, -36, 1.8, 1.9, 3.6
-18, 20, -36, 1.8, 2.0, 3.6
-18, 21, -36, 1.8, 2.1, 3.6
-18, 22, -36, 1.8, 2.2, 3.6
-18, 23, -36, 1.8, 2.3, 3.6
-18, 24, -36, 1.8, 2.4, 3.6
-18, 25, -36, 1.8, 2.5, 3.6
-18, 26, -36, 1.8, 2.6, 3.6
-18, 27, -36, 1.8, 2.7, 3.6
-18, 28, -36, 1.8, 2.8, 3.6
-18, 29, -36, 1.8, 2.9, 3.6
-18, 30, -36, 1.8, 3.0, 3.6
-18, 31, -36, 1.8, 3.1, 3.6
-18, 32, -36, 1.8, 3.2, 3.6
-18, 33, -36, 1.8, 3.3, 3.6
-18, 34, -36, 1.8, 3.4, 3.6
-18, 35, -36, 1.8, 3.5, 3.6
-18, 36, -36, 1.8, 3.6, 3.6
-18, 37, -36, 1.8, 3.7, 3.6
-18, 38, -36, 1.8, 3.8, 3.6
-18, 39, -36, 1.8, 3.9, 3.6
-18, 40, -36, 1.8, 4.0, 3.6
-18, 41, -36, 1.8, 4.1, 3.6
-18, 42, -36, 1.8, 4.2, 3.6
-18, 43, -36, 1.8, 4.3, 3.6
-18, 44, -36, 1.8, 4.4, 3.6
-18, 45, -36, 1.8, 4.5, 3.6
-18, 46, -36, 1.8, 4.6, 3.6
-18, 47, -36, 1.8, 4.7, 3.6
-18, 48, -36, 1.8, 4.8, 3.6
-18, 49, -36, 1.8, 4.9, 3.6
-18, 50, -36, 1.8, 5.0, 3.6
-18, 51, -36, 1.8, 5.1, 3.6
-18, 52, -36, 1.8, 5.2, 3.6
-18, 53, -36, 1.8, 5.3, 3.6
-18, 54, -36, 1.8, 5.4, 3.6
-18, 55, -36, 1.8, 5.5, 3.6
-18, 56, -36, 1.8, 5.6, 3.6
-18, 57, -36, 1.8, 5.7, 3.6
-18, 58, -36, 1.8, 5.8, 3.6
-18, 59, -36, 1.8, 5.9, 3.6
-18, 60, -36, 1.8, 6.0, 3.6
-18, 61, -36, 1.8, 6.1, 3.6
-18, 62, -36, 1.8, 6.2, 3.6
-18, 63, -36, 1.8, 6.3, 3.6
-18, 64, -36, 1.8, 6.4, 3.6
-18, 65, -36, 1.8, 6.5, 3.6
-18, 66, -36, 1.8, 6.6, 3.6
-18, 67, -36, 1.8, 6.7, 3.6
-18, 68, -36, 1.8, 6.8, 3.6
-18, 69, -36, 1.8, 6.9, 3.6
-18, 70, -36, 1.8, 7.0, 3.6
-18, 71, -36, 1.8, 7.1, 3.6
-18, 72, -36, 1.8, 7.2, 3.6
-18, 73, -36, 1.8, 7.3, 3.6
-18, 74, -36, 1.8, 7.4, 3.6
-18, 75, -36, 1.8, 7.5, 3.6
-18, 76, -36, 1.8, 7.6, 3.6
-18, 77, -36, 1.8, 7.7, 3.6
-18, 78, -36, 1.8, 7.8, 3.6
-18, 79, -36, 1.8, 7.9, 3.6
-18, 80, -36, 1.8, 8.0, 3.6
-18, 81, -36, 1.8, 8.1, 3.6
-18, 82, -36, 1.8, 8.2, 3.6
-18, 83, -36, 1.8, 8.3, 3.6
-18, 84, -36, 1.8, 8.4, 3.6
-18, 85, -36, 1.8, 8.5, 3.6
-18, 86, -36, 1.8, 8.6, 3.6
-18, 87, -36, 1.8, 8.7, 3.6
-18, 88, -36, 1.8, 8.8, 3.6
-18, 89, -36, 1.8, 8.9, 3.6
-18, 90, -36, 1.8, 9.0, 3.6
-18, 91, -36, 1.8, 9.1, 3.6
-18, 92, -36, 1.8, 9.2, 3.6
-18, 93, -36, 1.8, 9.3, 3.6
-18, 94, -36, 1.8, 9.4, 3.6
-18, 95, -36, 1.8, 9.5, 3.6
-18, 96, -36, 1.8, 9.6, 3.6
-18, 97, -36, 1.8, 9.7, 3.6
-18, 98, -36, 1.8, 9.8, 3.6
-18, 99, -36, 1.8, 9.9, 3.6
-18, 100, -36, 1.8, 10.0, 3.6
-17, -100, 34, 1.7, 10.0, 3.4
-17, -99, 34, 1.7, 9.9, 3.4
-17, -98, 34, 1.7, 9.8, 3.4
-17, -97, 34, 1.7, 9.7, 3.4
-17, -96, 34, 1.7, 9.6, 3.4
-17, -95, 34, 1.7, 9.5, 3.4
-17, -94, 34, 1.7, 9.4, 3.4
-17, -93, 34, 1.7, 9.3, 3.4
-17, -92, 34, 1.7, 9.2, 3.4
-17, -91, 34, 1.7, 9.1, 3.4
-17, -90, 34, 1.7, 9.0, 3.4
-17, -89, 34, 1.7, 8.9, 3.4
-17, -88, 34, 1.7, 8.8, 3.4
-17, -87, 34, 1.7, 8.7, 3.4
-17, -86, 34, 1.7, 8.6, 3.4
-17, -85, 34, 1.7, 8.5, 3.4
-17, -84, 34, 1.7, 8.4, 3.4
-17, -83, 34, 1.7, 8.3, 3.4
-17, -82, 34, 1.7, 8.2, 3.4
-17, -81, 34, 1.7, 8.1, 3.4
-17, -80, 34, 1.7, 8.0, 3.4
-17, -79, 34, 1.7, 7.9, 3.4
-17, -78, 34, 1.7, 7.8, 3.4
-17, -77, 34, 1.7, 7.7, 3.4
-17, -76, 34, 1.7, 7.6, 3.4
-17, -75, 34, 1.7, 7.5, 3.4
-17, -74, 34, 1.7, 7.4, 3.4
-17, -73, 34, 1.7, 7.3, 3.4
-17, -72, 34, 1.7, 7.2, 3.4
-17, -71, 34, 1.7, 7.1, 3.4
-17, -70, 34, 1.7, 7.0, 3.4
-17, -69, 34, 1.7, 6.9, 3.4
-17, -68, 34, 1.7, 6.8, 3.4
-17, -67, 34, 1.7, 6.7, 3.4
-17, -66, 34, 1.7, 6.6, 3.4
-17, -65, 34, 1.7, 6.5, 3.4
-17, -64, 34, 1.7, 6.4, 3.4
-17, -63, 34, 1.7, 6.3, 3.4
-17, -62, 34, 1.7, 6.2, 3.4
-17, -61, 34, 1.7, 6.1, 3.4
-17, -60, 34, 1.7, 6.0, 3.4
-17, -59, 34, 1.7, 5.9, 3.4
-17, -58, 34, 1.7, 5.8, 3.4
-17, -57, 34, 1.7, 5.7, 3.4
-17, -56, 34, 1.7, 5.6, 3.4
-17, -55, 34, 1.7, 5.5, 3.4
-17, -54, 34, 1.7, 5.4, 3.4
-17, -53, 34, 1.7, 5.3, 3.4
-17, -52, 34, 1.7, 5.2, 3.4
-17, -51, 34, 1.7, 5.1, 3.4
-17, -50, 34, 1.7, 5.0, 3.4
-17, -49, 34, 1.7, 4.9, 3.4
-17, -48, 34, 1.7, 4.8, 3.4
-17, -47, 34, 1.7, 4.7, 3.4
-17, -46, 34, 1.7, 4.6, 3.4
-17, -45, 34, 1.7, 4.5, 3.4
-17, -44, 34, 1.7, 4.4, 3.4
-17, -43, 34, 1.7, 4.3, 3.4
-17, -42, 34, 1.7, 4.2, 3.4
-17, -41, 34, 1.7, 4.1, 3.4
-17, -40, 34, 1.7, 4.0, 3.4
-17, -39, 34, 1.7, 3.9, 3.4
-17, -38, 34, 1.7, 3.8, 3.4
-17, -37, 34, 1.7, 3.7, 3.4
-17, -36, 34, 1.7, 3.6, 3.4
-17, -35, 34, 1.7, 3.5, 3.4
-17, -34, 34, 1.7, 3.4, 3.4
-17, -33, 34, 1.7, 3.3, 3.4
-17, -32, 34, 1.7, 3.2, 3.4
-17, -31, 34, 1.7, 3.1, 3.4
-17, -30, 34, 1.7, 3.0, 3.4
-17, -29, 34, 1.7, 2.9, 3.4
-17, -28, 34, 1.7, 2.8, 3.4
-17, -27, 34, 1.7, 2.7, 3.4
-17, -26, 34, 1.7, 2.6, 3.4
-17, -25, 34, 1.7, 2.5, 3.4
-17, -24, 34, 1.7, 2.4, 3.4
-17, -23, 34, 1.7, 2.3, 3.4
-17, -22, 34, 1.7, 2.2, 3.4
-17, -21, 34, 1.7, 2.1, 3.4
-17, -20, 34, 1.7, 2.0, 3.4
-17, -19, 34, 1.7, 1.9, 3.4
-17, -18, 34, 1.7, 1.8, 3.4
-17, -17, 34, 1.7, 1.7, 3.4
-17, -16, 32, 1.7, 1.6, 3.2
-17, -15, 30, 1.7, 1.5, 3.0
-17, -14, 28, 1.7, 1.4, 2.8
-17, -13, 26, 1.7, 1.3, 2.6
-17, -12, 24, 1.7, 1.2, 2.4
-17, -11, 22, 1.7, 1.1, 2.2
-17, -10, 20, 1.7, 1.0, 2.0
-17, -9, 18, 1.7, 0.9, 1.8
-17, -8, 16, 1.7, 0.8, 1.6
-17, -7, 14, 1.7, 0.7, 1.4
-17, -6, 12, 1.7, 0.6, 1.2
-17, -5, 10, 1.7, 0.5, 1.0
-17, -4, 8, 1.7, 0.4, 0.8
-17, -3, 6, 1.7, 0.3, 0.6
-17, -2, 4, 1.7, 0.2, 0.4
-17, -1, 2, 1.7, 0.1, 0.2
-17, 0, 0, 1.7, 0.0, 0.0
-17, 1, -2, 1.7, 0.1, 0.2
-17, 2, -4, 1.7, 0.2, 0.4
-17, 3, -6, 1.7, 0.3, 0.6
-17, 4, -8, 1.7, 0.4, 0.8
-17, 5, -10, 1.7, 0.5, 1.0
-17, 6, -12, 1.7, 0.6, 1.2
-17, 7, -14, 1.7, 0.7, 1.4
-17, 8, -16, 1.7, 0.8, 1.6
-17, 9, -18, 1.7, 0.9, 1.8
-17, 10, -20, 1.7, 1.0, 2.0
-17, 11, -22, 1.7, 1.1, 2.2
-17, 12, -24, 1.7, 1.2, 2.4
-17, 13, -26, 1.7, 1.3, 2.6
-17, 14, -28, 1.7, 1.4, 2.8
-17, 15, -30, 1.7, 1.5, 3.0
-17, 16, -32, 1.7, 1.6, 3.2
-17, 17, -34, 1.7, 1.7, 3.4
-17, 18, -34, 1.7, 1.8, 3.4
-17, 19, -34, 1.7, 1.9, 3.4
-17, 20, -34, 1.7, 2.0, 3.4
-17, 21, -34, 1.7, 2.1, 3.4
-17, 22, -34, 1.7, 2.2, 3.4
-17, 23, -34, 1.7, 2.3, 3.4
-17, 24, -34, 1.7, 2.4, 3.4
-17, 25, -34, 1.7, 2.5, 3.4
-17, 26, -34, 1.7, 2.6, 3.4
-17, 27, -34, 1.7, 2.7, 3.4
-17, 28, -34, 1.7, 2.8, 3.4
-17, 29, -34, 1.7, 2.9, 3.4
-17, 30, -34, 1.7, 3.0, 3.4
-17, 31, -34, 1.7, 3.1, 3.4
-17, 32, -34, 1.7, 3.2, 3.4
-17, 33, -34, 1.7, 3.3, 3.4
-17, 34, -34, 1.7, 3.4, 3.4
-17, 35, -34, 1.7, 3.5, 3.4
-17, 36, -34, 1.7, 3.6, 3.4
-17, 37, -34, 1.7, 3.7, 3.4
-17, 38, -34, 1.7, 3.8, 3.4
-17, 39, -34, 1.7, 3.9, 3.4
-17, 40, -34, 1.7, 4.0, 3.4
-17, 41, -34, 1.7, 4.1, 3.4
-17, 42, -34, 1.7, 4.2, 3.4
-17, 43, -34, 1.7, 4.3, 3.4
-17, 44, -34, 1.7, 4.4, 3.4
-17, 45, -34, 1.7, 4.5, 3.4
-17, 46, -34, 1.7, 4.6, 3.4
-17, 47, -34, 1.7, 4.7, 3.4
-17, 48, -34, 1.7, 4.8, 3.4
-17, 49, -34, 1.7, 4.9, 3.4
-17, 50, -34, 1.7, 5.0, 3.4
-17, 51, -34, 1.7, 5.1, 3.4
-17, 52, -34, 1.7, 5.2, 3.4
-17, 53, -34, 1.7, 5.3, 3.4
-17, 54, -34, 1.7, 5.4, 3.4
-17, 55, -34, 1.7, 5.5, 3.4
-17, 56, -34, 1.7, 5.6, 3.4
-17, 57, -34, 1.7, 5.7, 3.4
-17, 58, -34, 1.7, 5.8, 3.4
-17, 59, -34, 1.7, 5.9, 3.4
-17, 60, -34, 1.7, 6.0, 3.4
-17, 61, -34, 1.7, 6.1, 3.4
-17, 62, -34, 1.7, 6.2, 3.4
-17, 63, -34, 1.7, 6.3, 3.4
-17, 64, -34, 1.7, 6.4, 3.4
-17, 65, -34, 1.7, 6.5, 3.4
-17, 66, -34, 1.7, 6.6, 3.4
-17, 67, -34, 1.7, 6.7, 3.4
-17, 68, -34, 1.7, 6.8, 3.4
-17, 69, -34, 1.7, 6.9, 3.4
-17, 70, -34, 1.7, 7.0, 3.4
-17, 71, -34, 1.7, 7.1, 3.4
-17, 72, -34, 1.7, 7.2, 3.4
-17, 73, -34, 1.7, 7.3, 3.4
-17, 74, -34, 1.7, 7.4, 3.4
-17, 75, -34, 1.7, 7.5, 3.4
-17, 76, -34, 1.7, 7.6, 3.4
-17, 77, -34, 1.7, 7.7, 3.4
-17, 78, -34, 1.7, 7.8, 3.4
-17, 79, -34, 1.7, 7.9, 3.4
-17, 80, -34, 1.7, 8.0, 3.4
-17, 81, -34, 1.7, 8.1, 3.4
-17, 82, -34, 1.7, 8.2, 3.4
-17, 83, -34, 1.7, 8.3, 3.4
-17, 84, -34, 1.7, 8.4, 3.4
-17, 85, -34, 1.7, 8.5, 3.4
-17, 86, -34, 1.7, 8.6, 3.4
-17, 87, -34, 1.7, 8.7, 3.4
-17, 88, -34, 1.7, 8.8, 3.4
-17, 89, -34, 1.7, 8.9, 3.4
-17, 90, -34, 1.7, 9.0, 3.4
-17, 91, -34, 1.7, 9.1, 3.4
-17, 92, -34, 1.7, 9.2, 3.4
-17, 93, -34, 1.7, 9.3, 3.4
-17, 94, -34, 1.7, 9.4, 3.4
-17, 95, -34, 1.7, 9.5, 3.4
-17, 96, -34, 1.7, 9.6, 3.4
-17, 97, -34, 1.7, 9.7, 3.4
-17, 98, -34, 1.7, 9.8, 3.4
-17, 99, -34, 1.7, 9.9, 3.4
-17, 100, -34, 1.7, 10.0, 3.4
-16, -100, 32, 1.6, 10.0, 3.2
-16, -99, 32, 1.6, 9.9, 3.2
-16, -98, 32, 1.6, 9.8, 3.2
-16, -97, 32, 1.6, 9.7, 3.2
-16, -96, 32, 1.6, 9.6, 3.2
-16, -95, 32, 1.6, 9.5, 3.2
-16, -94, 32, 1.6, 9.4, 3.2
-16, -93, 32, 1.6, 9.3, 3.2
-16, -92, 32, 1.6, 9.2, 3.2
-16, -91, 32, 1.6, 9.1, 3.2
-16, -90, 32, 1.6, 9.0, 3.2
-16, -89, 32, 1.6, 8.9, 3.2
-16, -88, 32, 1.6, 8.8, 3.2
-16, -87, 32, 1.6, 8.7, 3.2
-16, -86, 32, 1.6, 8.6, 3.2
-16, -85, 32, 1.6, 8.5, 3.2
-16, -84, 32, 1.6, 8.4, 3.2
-16, -83, 32, 1.6, 8.3, 3.2
-16, -82, 32, 1.6, 8.2, 3.2
-16, -81, 32, 1.6, 8.1, 3.2
-16, -80, 32, 1.6, 8.0, 3.2
-16, -79, 32, 1.6, 7.9, 3.2
-16, -78, 32, 1.6, 7.8, 3.2
-16, -77, 32, 1.6, 7.7, 3.2
-16, -76, 32, 1.6, 7.6, 3.2
-16, -75, 32, 1.6, 7.5, 3.2
-16, -74, 32, 1.6, 7.4, 3.2
-16, -73, 32, 1.6, 7.3, 3.2
-16, -72, 32, 1.6, 7.2, 3.2
-16, -71, 32, 1.6, 7.1, 3.2
-16, -70, 32, 1.6, 7.0, 3.2
-16, -69, 32, 1.6, 6.9, 3.2
-16, -68, 32, 1.6, 6.8, 3.2
-16, -67, 32, 1.6, 6.7, 3.2
-16, -66, 32, 1.6, 6.6, 3.2
-16, -65, 32, 1.6, 6.5, 3.2
-16, -64, 32, 1.6, 6.4, 3.2
-16, -63, 32, 1.6, 6.3, 3.2
-16, -62, 32, 1.6, 6.2, 3.2
-16, -61, 32, 1.6, 6.1, 3.2
-16, -60, 32, 1.6, 6.0, 3.2
-16, -59, 32, 1.6, 5.9, 3.2
-16, -58, 32, 1.6, 5.8, 3.2
-16, -57, 32, 1.6, 5.7, 3.2
-16, -56, 32, 1.6, 5.6, 3.2
-16, -55, 32, 1.6, 5.5, 3.2
-16, -54, 32, 1.6, 5.4, 3.2
-16, -53, 32, 1.6, 5.3, 3.2
-16, -52, 32, 1.6, 5.2, 3.2
-16, -51, 32, 1.6, 5.1, 3.2
-16, -50, 32, 1.6, 5.0, 3.2
-16, -49, 32, 1.6, 4.9, 3.2
-16, -48, 32, 1.6, 4.8, 3.2
-16, -47, 32, 1.6, 4.7, 3.2
-16, -46, 32, 1.6, 4.6, 3.2
-16, -45, 32, 1.6, 4.5, 3.2
-16, -44, 32, 1.6, 4.4, 3.2
-16, -43, 32, 1.6, 4.3, 3.2
-16, -42, 32, 1.6, 4.2, 3.2
-16, -41, 32, 1.6, 4.1, 3.2
-16, -40, 32, 1.6, 4.0, 3.2
-16, -39, 32, 1.6, 3.9, 3.2
-16, -38, 32, 1.6, 3.8, 3.2
-16, -37, 32, 1.6, 3.7, 3.2
-16, -36, 32, 1.6, 3.6, 3.2
-16, -35, 32, 1.6, 3.5, 3.2
-16, -34, 32, 1.6, 3.4, 3.2
-16, -33, 32, 1.6, 3.3, 3.2
-16, -32, 32, 1.6, 3.2, 3.2
-16, -31, 32, 1.6, 3.1, 3.2
-16, -30, 32, 1.6, 3.0, 3.2
-16, -29, 32, 1.6, 2.9, 3.2
-16, -28, 32, 1.6, 2.8, 3.2
-16, -27, 32, 1.6, 2.7, 3.2
-16, -26, 32, 1.6, 2.6, 3.2
-16, -25, 32, 1.6, 2.5, 3.2
-16, -24, 32, 1.6, 2.4, 3.2
-16, -23, 32, 1.6, 2.3, 3.2
-16, -22, 32, 1.6, 2.2, 3.2
-16, -21, 32, 1.6, 2.1, 3.2
-16, -20, 32, 1.6, 2.0, 3.2
-16, -19, 32, 1.6, 1.9, 3.2
-16, -18, 32, 1.6, 1.8, 3.2
-16, -17, 32, 1.6, 1.7, 3.2
-16, -16, 32, 1.6, 1.6, 3.2
-16, -15, 30, 1.6, 1.5, 3.0
-16, -14, 28, 1.6, 1.4, 2.8
-16, -13, 26, 1.6, 1.3, 2.6
-16, -12, 24, 1.6, 1.2, 2.4
-16, -11, 22, 1.6, 1.1, 2.2
-16, -10, 20, 1.6, 1.0, 2.0
-16, -9, 18, 1.6, 0.9, 1.8
-16, -8, 16, 1.6, 0.8, 1.6
-16, -7, 14, 1.6, 0.7, 1.4
-16, -6, 12, 1.6, 0.6, 1.2
-16, -5, 10, 1.6, 0.5, 1.0
-16, -4, 8, 1.6, 0.4, 0.8
-16, -3, 6, 1.6, 0.3, 0.6
-16, -2, 4, 1.6, 0.2, 0.4
-16, -1, 2, 1.6, 0.1, 0.2
-16, 0, 0, 1.6, 0.0, 0.0
-16, 1, -2, 1.6, 0.1, 0.2
-16, 2, -4, 1.6, 0.2, 0.4
-16, 3, -6, 1.6, 0.3, 0.6
-16, 4, -8, 1.6, 0.4, 0.8
-16, 5, -10, 1.6, 0.5, 1.0
-16, 6, -12, 1.6, 0.6, 1.2
-16, 7, -14, 1.6, 0.7, 1.4
-16, 8, -16, 1.6, 0.8, 1.6
-16, 9, -18, 1.6, 0.9, 1.8
-16, 10, -20, 1.6, 1.0, 2.0
-16, 11, -22, 1.6, 1.1, 2.2
-16, 12, -24, 1.6, 1.2, 2.4
-16, 13, -26, 1.6, 1.3, 2.6
-16, 14, -28, 1.6, 1.4, 2.8
-16, 15, -30, 1.6, 1.5, 3.0
-16, 16, -32, 1.6, 1.6, 3.2
-16, 17, -32, 1.6, 1.7, 3.2
-16, 18, -32, 1.6, 1.8, 3.2
-16, 19, -32, 1.6, 1.9, 3.2
-16, 20, -32, 1.6, 2.0, 3.2
-16, 21, -32, 1.6, 2.1, 3.2
-16, 22, -32, 1.6, 2.2, 3.2
-16, 23, -32, 1.6, 2.3, 3.2
-16, 24, -32, 1.6, 2.4, 3.2
-16, 25, -32, 1.6, 2.5, 3.2
-16, 26, -32, 1.6, 2.6, 3.2
-16, 27, -32, 1.6, 2.7, 3.2
-16, 28, -32, 1.6, 2.8, 3.2
-16, 29, -32, 1.6, 2.9, 3.2
-16, 30, -32, 1.6, 3.0, 3.2
-16, 31, -32, 1.6, 3.1, 3.2
-16, 32, -32, 1.6, 3.2, 3.2
-16, 33, -32, 1.6, 3.3, 3.2
-16, 34, -32, 1.6, 3.4, 3.2
-16, 35, -32, 1.6, 3.5, 3.2
-16, 36, -32, 1.6, 3.6, 3.2
-16, 37, -32, 1.6, 3.7, 3.2
-16, 38, -32, 1.6, 3.8, 3.2
-16, 39, -32, 1.6, 3.9, 3.2
-16, 40, -32, 1.6, 4.0, 3.2
-16, 41, -32, 1.6, 4.1, 3.2
-16, 42, -32, 1.6, 4.2, 3.2
-16, 43, -32, 1.6, 4.3, 3.2
-16, 44, -32, 1.6, 4.4, 3.2
-16, 45, -32, 1.6, 4.5, 3.2
-16, 46, -32, 1.6, 4.6, 3.2
-16, 47, -32, 1.6, 4.7, 3.2
-16, 48, -32, 1.6, 4.8, 3.2
-16, 49, -32, 1.6, 4.9, 3.2
-16, 50, -32, 1.6, 5.0, 3.2
-16, 51, -32, 1.6, 5.1, 3.2
-16, 52, -32, 1.6, 5.2, 3.2
-16, 53, -32, 1.6, 5.3, 3.2
-16, 54, -32, 1.6, 5.4, 3.2
-16, 55, -32, 1.6, 5.5, 3.2
-16, 56, -32, 1.6, 5.6, 3.2
-16, 57, -32, 1.6, 5.7, 3.2
-16, 58, -32, 1.6, 5.8, 3.2
-16, 59, -32, 1.6, 5.9, 3.2
-16, 60, -32, 1.6, 6.0, 3.2
-16, 61, -32, 1.6, 6.1, 3.2
-16, 62, -32, 1.6, 6.2, 3.2
-16, 63, -32, 1.6, 6.3, 3.2
-16, 64, -32, 1.6, 6.4, 3.2
-16, 65, -32, 1.6, 6.5, 3.2
-16, 66, -32, 1.6, 6.6, 3.2
-16, 67, -32, 1.6, 6.7, 3.2
-16, 68, -32, 1.6, 6.8, 3.2
-16, 69, -32, 1.6, 6.9, 3.2
-16, 70, -32, 1.6, 7.0, 3.2
-16, 71, -32, 1.6, 7.1, 3.2
-16, 72, -32, 1.6, 7.2, 3.2
-16, 73, -32, 1.6, 7.3, 3.2
-16, 74, -32, 1.6, 7.4, 3.2
-16, 75, -32, 1.6, 7.5, 3.2
-16, 76, -32, 1.6, 7.6, 3.2
-16, 77, -32, 1.6, 7.7, 3.2
-16, 78, -32, 1.6, 7.8, 3.2
-16, 79, -32, 1.6, 7.9, 3.2
-16, 80, -32, 1.6, 8.0, 3.2
-16, 81, -32, 1.6, 8.1, 3.2
-16, 82, -32, 1.6, 8.2, 3.2
-16, 83, -32, 1.6, 8.3, 3.2
-16, 84, -32, 1.6, 8.4, 3.2
-16, 85, -32, 1.6, 8.5, 3.2
-16, 86, -32, 1.6, 8.6, 3.2
-16, 87, -32, 1.6, 8.7, 3.2
-16, 88, -32, 1.6, 8.8, 3.2
-16, 89, -32, 1.6, 8.9, 3.2
-16, 90, -32, 1.6, 9.0, 3.2
-16, 91, -32, 1.6, 9.1, 3.2
-16, 92, -32, 1.6, 9.2, 3.2
-16, 93, -32, 1.6, 9.3, 3.2
-16, 94, -32, 1.6, 9.4, 3.2
-16, 95, -32, 1.6, 9.5, 3.2
-16, 96, -32, 1.6, 9.6, 3.2
-16, 97, -32, 1.6, 9.7, 3.2
-16, 98, -32, 1.6, 9.8, 3.2
-16, 99, -32, 1.6, 9.9, 3.2
-16, 100, -32, 1.6, 10.0, 3.2
-15, -100, 30, 1.5, 10.0, 3.0
-15, -99, 30, 1.5, 9.9, 3.0
-15, -98, 30, 1.5, 9.8, 3.0
-15, -97, 30, 1.5, 9.7, 3.0
-15, -96, 30, 1.5, 9.6, 3.0
-15, -95, 30, 1.5, 9.5, 3.0
-15, -94, 30, 1.5, 9.4, 3.0
-15, -93, 30, 1.5, 9.3, 3.0
-15, -92, 30, 1.5, 9.2, 3.0
-15, -91, 30, 1.5, 9.1, 3.0
-15, -90, 30, 1.5, 9.0, 3.0
-15, -89, 30, 1.5, 8.9, 3.0
-15, -88, 30, 1.5, 8.8, 3.0
-15, -87, 30, 1.5, 8.7, 3.0
-15, -86, 30, 1.5, 8.6, 3.0
-15, -85, 30, 1.5, 8.5, 3.0
-15, -84, 30, 1.5, 8.4, 3.0
-15, -83, 30, 1.5, 8.3, 3.0
-15, -82, 30, 1.5, 8.2, 3.0
-15, -81, 30, 1.5, 8.1, 3.0
-15, -80, 30, 1.5, 8.0, 3.0
-15, -79, 30, 1.5, 7.9, 3.0
-15, -78, 30, 1.5, 7.8, 3.0
-15, -77, 30, 1.5, 7.7, 3.0
-15, -76, 30, 1.5, 7.6, 3.0
-15, -75, 30, 1.5, 7.5, 3.0
-15, -74, 30, 1.5, 7.4, 3.0
-15, -73, 30, 1.5, 7.3, 3.0
-15, -72, 30, 1.5, 7.2, 3.0
-15, -71, 30, 1.5, 7.1, 3.0
-15, -70, 30, 1.5, 7.0, 3.0
-15, -69, 30, 1.5, 6.9, 3.0
-15, -68, 30, 1.5, 6.8, 3.0
-15, -67, 30, 1.5, 6.7, 3.0
-15, -66, 30, 1.5, 6.6, 3.0
-15, -65, 30, 1.5, 6.5, 3.0
-15, -64, 30, 1.5, 6.4, 3.0
-15, -63, 30, 1.5, 6.3, 3.0
-15, -62, 30, 1.5, 6.2, 3.0
-15, -61, 30, 1.5, 6.1, 3.0
-15, -60, 30, 1.5, 6.0, 3.0
-15, -59, 30, 1.5, 5.9, 3.0
-15, -58, 30, 1.5, 5.8, 3.0
-15, -57, 30, 1.5, 5.7, 3.0
-15, -56, 30, 1.5, 5.6, 3.0
-15, -55, 30, 1.5, 5.5, 3.0
-15, -54, 30, 1.5, 5.4, 3.0
-15, -53, 30, 1.5, 5.3, 3.0
-15, -52, 30, 1.5, 5.2, 3.0
-15, -51, 30, 1.5, 5.1, 3.0
-15, -50, 30, 1.5, 5.0, 3.0
-15, -49, 30, 1.5, 4.9, 3.0
-15, -48, 30, 1.5, 4.8, 3.0
-15, -47, 30, 1.5, 4.7, 3.0
-15, -46, 30, 1.5, 4.6, 3.0
-15, -45, 30, 1.5, 4.5, 3.0
-15, -44, 30, 1.5, 4.4, 3.0
-15, -43, 30, 1.5, 4.3, 3.0
-15, -42, 30, 1.5, 4.2, 3.0
-15, -41, 30, 1.5, 4.1, 3.0
-15, -40, 30, 1.5, 4.0, 3.0
-15, -39, 30, 1.5, 3.9, 3.0
-15, -38, 30, 1.5, 3.8, 3.0
-15, -37, 30, 1.5, 3.7, 3.0
-15, -36, 30, 1.5, 3.6, 3.0
-15, -35, 30, 1.5, 3.5, 3.0
-15, -34, 30, 1.5, 3.4, 3.0
-15, -33, 30, 1.5, 3.3, 3.0
-15, -32, 30, 1.5, 3.2, 3.0
-15, -31, 30, 1.5, 3.1, 3.0
-15, -30, 30, 1.5, 3.0, 3.0
-15, -29, 30, 1.5, 2.9, 3.0
-15, -28, 30, 1.5, 2.8, 3.0
-15, -27, 30, 1.5, 2.7, 3.0
-15, -26, 30, 1.5, 2.6, 3.0
-15, -25, 30, 1.5, 2.5, 3.0
-15, -24, 30, 1.5, 2.4, 3.0
-15, -23, 30, 1.5, 2.3, 3.0
-15, -22, 30, 1.5, 2.2, 3.0
-15, -21, 30, 1.5, 2.1, 3.0
-15, -20, 30, 1.5, 2.0, 3.0
-15, -19, 30, 1.5, 1.9, 3.0
-15, -18, 30, 1.5, 1.8, 3.0
-15, -17, 30, 1.5, 1.7, 3.0
-15, -16, 30, 1.5, 1.6, 3.0
-15, -15, 30, 1.5, 1.5, 3.0
-15, -14, 28, 1.5, 1.4, 2.8
-15, -13, 26, 1.5, 1.3, 2.6
-15, -12, 24, 1.5, 1.2, 2.4
-15, -11, 22, 1.5, 1.1, 2.2
-15, -10, 20, 1.5, 1.0, 2.0
-15, -9, 18, 1.5, 0.9, 1.8
-15, -8, 16, 1.5, 0.8, 1.6
-15, -7, 14, 1.5, 0.7, 1.4
-15, -6, 12, 1.5, 0.6, 1.2
-15, -5, 10, 1.5, 0.5, 1.0
-15, -4, 8, 1.5, 0.4, 0.8
-15, -3, 6, 1.5, 0.3, 0.6
-15, -2, 4, 1.5, 0.2, 0.4
-15, -1, 2, 1.5, 0.1, 0.2
-15, 0, 0, 1.5, 0.0, 0.0
-15, 1, -2, 1.5, 0.1, 0.2
-15, 2, -4, 1.5, 0.2, 0.4
-15, 3, -6, 1.5, 0.3, 0.6
-15, 4, -8, 1.5, 0.4, 0.8
-15, 5, -10, 1.5, 0.5, 1.0
-15, 6, -12, 1.5, 0.6, 1.2
-15, 7, -14, 1.5, 0.7, 1.4
-15, 8, -16, 1.5, 0.8, 1.6
-15, 9, -18, 1.5, 0.9, 1.8
-15, 10, -20, 1.5, 1.0, 2.0
-15, 11, -22, 1.5, 1.1, 2.2
-15, 12, -24, 1.5, 1.2, 2.4
-15, 13, -26, 1.5, 1.3, 2.6
-15, 14, -28, 1.5, 1.4, 2.8
-15, 15, -30, 1.5, 1.5, 3.0
-15, 16, -30, 1.5, 1.6, 3.0
-15, 17, -30, 1.5, 1.7, 3.0
-15, 18, -30, 1.5, 1.8, 3.0
-15, 19, -30, 1.5, 1.9, 3.0
-15, 20, -30, 1.5, 2.0, 3.0
-15, 21, -30, 1.5, 2.1, 3.0
-15, 22, -30, 1.5, 2.2, 3.0
-15, 23, -30, 1.5, 2.3, 3.0
-15, 24, -30, 1.5, 2.4, 3.0
-15, 25, -30, 1.5, 2.5, 3.0
-15, 26, -30, 1.5, 2.6, 3.0
-15, 27, -30, 1.5, 2.7, 3.0
-15, 28, -30, 1.5, 2.8, 3.0
-15, 29, -30, 1.5, 2.9, 3.0
-15, 30, -30, 1.5, 3.0, 3.0
-15, 31, -30, 1.5, 3.1, 3.0
-15, 32, -30, 1.5, 3.2, 3.0
-15, 33, -30, 1.5, 3.3, 3.0
-15, 34, -30, 1.5, 3.4, 3.0
-15, 35, -30, 1.5, 3.5, 3.0
-15, 36, -30, 1.5, 3.6, 3.0
-15, 37, -30, 1.5, 3.7, 3.0
-15, 38, -30, 1.5, 3.8, 3.0
-15, 39, -30, 1.5, 3.9, 3.0
-15, 40, -30, 1.5, 4.0, 3.0
-15, 41, -30, 1.5, 4.1, 3.0
-15, 42, -30, 1.5, 4.2, 3.0
-15, 43, -30, 1.5, 4.3, 3.0
-15, 44, -30, 1.5, 4.4, 3.0
-15, 45, -30, 1.5, 4.5, 3.0
-15, 46, -30, 1.5, 4.6, 3.0
-15, 47, -30, 1.5, 4.7, 3.0
-15, 48, -30, 1.5, 4.8, 3.0
-15, 49, -30, 1.5, 4.9, 3.0
-15, 50, -30, 1.5, 5.0, 3.0
-15, 51, -30, 1.5, 5.1, 3.0
-15, 52, -30, 1.5, 5.2, 3.0
-15, 53, -30, 1.5, 5.3, 3.0
-15, 54, -30, 1.5, 5.4, 3.0
-15, 55, -30, 1.5, 5.5, 3.0
-15, 56, -30, 1.5, 5.6, 3.0
-15, 57, -30, 1.5, 5.7, 3.0
-15, 58, -30, 1.5, 5.8, 3.0
-15, 59, -30, 1.5, 5.9, 3.0
-15, 60, -30, 1.5, 6.0, 3.0
-15, 61, -30, 1.5, 6.1, 3.0
-15, 62, -30, 1.5, 6.2, 3.0
-15, 63, -30, 1.5, 6.3, 3.0
-15, 64, -30, 1.5, 6.4, 3.0
-15, 65, -30, 1.5, 6.5, 3.0
-15, 66, -30, 1.5, 6.6, 3.0
-15, 67, -30, 1.5, 6.7, 3.0
-15, 68, -30, 1.5, 6.8, 3.0
-15, 69, -30, 1.5, 6.9, 3.0
-15, 70, -30, 1.5, 7.0, 3.0
-15, 71, -30, 1.5, 7.1, 3.0
-15, 72, -30, 1.5, 7.2, 3.0
-15, 73, -30, 1.5, 7.3, 3.0
-15, 74, -30, 1.5, 7.4, 3.0
-15, 75, -30, 1.5, 7.5, 3.0
-15, 76, -30, 1.5, 7.6, 3.0
-15, 77, -30, 1.5, 7.7, 3.0
-15, 78, -30, 1.5, 7.8, 3.0
-15, 79, -30, 1.5, 7.9, 3.0
-15, 80, -30, 1.5, 8.0, 3.0
-15, 81, -30, 1.5, 8.1, 3.0
-15, 82, -30, 1.5, 8.2, 3.0
-15, 83, -30, 1.5, 8.3, 3.0
-15, 84, -30, 1.5, 8.4, 3.0
-15, 85, -30, 1.5, 8.5, 3.0
-15, 86, -30, 1.5, 8.6, 3.0
-15, 87, -30, 1.5, 8.7, 3.0
-15, 88, -30, 1.5, 8.8, 3.0
-15, 89, -30, 1.5, 8.9, 3.0
-15, 90, -30, 1.5, 9.0, 3.0
-15, 91, -30, 1.5, 9.1, 3.0
-15, 92, -30, 1.5, 9.2, 3.0
-15, 93, -30, 1.5, 9.3, 3.0
-15, 94, -30, 1.5, 9.4, 3.0
-15, 95, -30, 1.5, 9.5, 3.0
-15, 96, -30, 1.5, 9.6, 3.0
-15, 97, -30, 1.5, 9.7, 3.0
-15, 98, -30, 1.5, 9.8, 3.0
-15, 99, -30, 1.5, 9.9, 3.0
-15, 100, -30, 1.5, 10.0, 3.0
-14, -100, 28, 1.4, 10.0, 2.8
-14, -99, 28, 1.4, 9.9, 2.8
-14, -98, 28, 1.4, 9.8, 2.8
-14, -97, 28, 1.4, 9.7, 2.8
-14, -96, 28, 1.4, 9.6, 2.8
-14, -95, 28, 1.4, 9.5, 2.8
-14, -94, 28, 1.4, 9.4, 2.8
-14, -93, 28, 1.4, 9.3, 2.8
-14, -92, 28, 1.4, 9.2, 2.8
-14, -91, 28, 1.4, 9.1, 2.8
-14, -90, 28, 1.4, 9.0, 2.8
-14, -89, 28, 1.4, 8.9, 2.8
-14, -88, 28, 1.4, 8.8, 2.8
-14, -87, 28, 1.4, 8.7, 2.8
-14, -86, 28, 1.4, 8.6, 2.8
-14, -85, 28, 1.4, 8.5, 2.8
-14, -84, 28, 1.4, 8.4, 2.8
-14, -83, 28, 1.4, 8.3, 2.8
-14, -82, 28, 1.4, 8.2, 2.8
-14, -81, 28, 1.4, 8.1, 2.8
-14, -80, 28, 1.4, 8.0, 2.8
-14, -79, 28, 1.4, 7.9, 2.8
-14, -78, 28, 1.4, 7.8, 2.8
-14, -77, 28, 1.4, 7.7, 2.8
-14, -76, 28, 1.4, 7.6, 2.8
-14, -75, 28, 1.4, 7.5, 2.8
-14, -74, 28, 1.4, 7.4, 2.8
-14, -73, 28, 1.4, 7.3, 2.8
-14, -72, 28, 1.4, 7.2, 2.8
-14, -71, 28, 1.4, 7.1, 2.8
-14, -70, 28, 1.4, 7.0, 2.8
-14, -69, 28, 1.4, 6.9, 2.8
-14, -68, 28, 1.4, 6.8, 2.8
-14, -67, 28, 1.4, 6.7, 2.8
-14, -66, 28, 1.4, 6.6, 2.8
-14, -65, 28, 1.4, 6.5, 2.8
-14, -64, 28, 1.4, 6.4, 2.8
-14, -63, 28, 1.4, 6.3, 2.8
-14, -62, 28, 1.4, 6.2, 2.8
-14, -61, 28, 1.4, 6.1, 2.8
-14, -60, 28, 1.4, 6.0, 2.8
-14, -59, 28, 1.4, 5.9, 2.8
-14, -58, 28, 1.4, 5.8, 2.8
-14, -57, 28, 1.4, 5.7, 2.8
-14, -56, 28, 1.4, 5.6, 2.8
-14, -55, 28, 1.4, 5.5, 2.8
-14, -54, 28, 1.4, 5.4, 2.8
-14, -53, 28, 1.4, 5.3, 2.8
-14, -52, 28, 1.4, 5.2, 2.8
-14, -51, 28, 1.4, 5.1, 2.8
-14, -50, 28, 1.4, 5.0, 2.8
-14, -49, 28, 1.4, 4.9, 2.8
-14, -48, 28, 1.4, 4.8, 2.8
-14, -47, 28, 1.4, 4.7, 2.8
-14, -46, 28, 1.4, 4.6, 2.8
-14, -45, 28, 1.4, 4.5, 2.8
-14, -44, 28, 1.4, 4.4, 2.8
-14, -43, 28, 1.4, 4.3, 2.8
-14, -42, 28, 1.4, 4.2, 2.8
-14, -41, 28, 1.4, 4.1, 2.8
-14, -40, 28, 1.4, 4.0, 2.8
-14, -39, 28, 1.4, 3.9, 2.8
-14, -38, 28, 1.4, 3.8, 2.8
-14, -37, 28, 1.4, 3.7, 2.8
-14, -36, 28, 1.4, 3.6, 2.8
-14, -35, 28, 1.4, 3.5, 2.8
-14, -34, 28, 1.4, 3.4, 2.8
-14, -33, 28, 1.4, 3.3, 2.8
-14, -32, 28, 1.4, 3.2, 2.8
-14, -31, 28, 1.4, 3.1, 2.8
-14, -30, 28, 1.4, 3.0, 2.8
-14, -29, 28, 1.4, 2.9, 2.8
-14, -28, 28, 1.4, 2.8, 2.8
-14, -27, 28, 1.4, 2.7, 2.8
-14, -26, 28, 1.4, 2.6, 2.8
-14, -25, 28, 1.4, 2.5, 2.8
-14, -24, 28, 1.4, 2.4, 2.8
-14, -23, 28, 1.4, 2.3, 2.8
-14, -22, 28, 1.4, 2.2, 2.8
-14, -21, 28, 1.4, 2.1, 2.8
-14, -20, 28, 1.4, 2.0, 2.8
